-535 106 3425
-573 110 3621
-629 122 4004
-601 119 3869
-531 105 3417
-685 136 4424
-726 141 4648
-729 142 4671
-585 112 3723
-756 145 4831
-738 143 4743
-400 76 2554
-1056 207 6842
-1063 208 6893
-1070 209 6945
-1077 210 6997
-2970 587 19413
-1901 374 12419
-3093 611 20257
-3532 690 23045
-3618 706 23630
-3297 651 21671
2015 -403 -13343
3281 -654 -21713
8822 -1753 -58357
8295 -1647 -54926
67 -18 -530
65 -18 -515
-1176 229 7755
-163 28 1023
1680 -331 -11178
-156 27 989
-156 27 990
-161 28 1022
17128 -3344 -113934
-1309 251 8658
1097 -217 -7367
1087 -215 -7309
1112 -222 -7520
-1289 250 8612
1092 -218 -7402
1050 -207 -7089
769 -152 -5211
-1401 268 9350
-1413 271 9444
1015 -200 -6882
1006 -198 -6832
-1452 278 9738
-186 32 1203
499 -100 -3438
524 -104 -3610
522 -104 -3596
446 -89 -3089
444 -89 -3079
442 -88 -3069
403 -81 -2804
401 -80 -2796
400 -80 -2788
435 -87 -3030
502 -100 -3490
885 -174 -6124
345 -69 -2425
338 -69 -2390
336 -69 -2384
335 -68 -2378
-24265 4834 169934
231 -47 -1654
164 -34 -1191
164 -34 -1189
282 -54 -1963
281 -54 -1959
60 -10 -402
51 -13 -416
254 -54 -1858
252 -52 -1821
251 -52 -1818
250 -51 -1814
246 -48 -1749
233 -46 -1660
235 -48 -1713
223 -46 -1628
223 -47 -1651
222 -47 -1649
222 -47 -1646
248 -52 -1835
247 -52 -1832
246 -52 -1828
312 -62 -2250
198 -40 -1447
197 -40 -1445
173 -35 -1280
188 -38 -1382
187 -38 -1380
187 -38 -1378
186 -38 -1376
178 -36 -1321
178 -36 -1319
-3298 612 23335
164 -21 -1029
165 -34 -1257
165 -34 -1255
164 -34 -1254
164 -34 -1252
142 -30 -1091
156 -32 -1198
141 -29 -1089
151 -31 -1161
150 -31 -1160
150 -31 -1158
150 -31 -1157
144 -30 -1118
149 -31 -1154
139 -29 -1080
138 -29 -1079
138 -29 -1078
138 -29 -1077
152 -31 -1180
128 -27 -1009
128 -27 -1008
127 -27 -1007
127 -27 -1006
123 -26 -977
119 -25 -949
122 -26 -975
-217 36 1563
40 -10 -364
40 -10 -364
40 -10 -364
70 0 -309
69 0 -308
34 -12 -381
34 -12 -381
75 -59 -1435
106 -23 -879
107 -22 -860
44 -11 -395
54 -13 -481
102 -23 -854
114 -25 -946
114 -24 -929
91 -19 -759
91 -19 -759
90 -19 -758
96 -20 -795
90 -19 -754
90 -19 -753
82 -18 -696
86 -18 -721
82 -17 -692
85 -18 -720
83 -18 -705
83 -18 -705
85 -18 -719
81 -17 -690
81 -17 -689
81 -17 -689
80 -17 -688
84 -18 -719
84 -18 -718
107 -22 -900
76 -16 -661
76 -16 -660
76 -16 -660
74 -16 -647
74 -16 -647
73 -16 -635
72 -16 -634
72 -15 -634
72 -15 -633
71 -15 -622
70 -15 -622
72 -15 -632
72 -15 -632
68 -15 -608
68 -15 -608
68 -15 -607
67 -14 -598
67 -14 -598
65 -14 -588
65 -14 -587
65 -14 -587
65 -14 -587
65 -14 -586
63 -14 -576
63 -14 -576
64 -14 -585
69 -15 -626
61 -13 -563
86 -18 -762
59 -13 -548
59 -13 -547
61 -13 -558
57 -12 -524
56 -12 -520
56 -12 -519
57 -12 -523
55 -12 -511
55 -12 -511
54 -12 -504
54 -12 -503
54 -12 -503
54 -12 -503
56 -12 -521
56 -12 -521
56 -12 -521
44 -10 -424
51 -11 -488
51 -11 -488
51 -11 -487
50 -11 -481
50 -11 -480
1085 -181 -8935
44 -10 -433
44 -10 -428
45 -10 -438
45 -10 -435
45 -10 -435
45 -10 -435
42 -9 -413
42 -9 -413
42 -9 -413
42 -9 -413
42 -9 -413
40 -9 -399
42 -9 -408
41 -9 -408
41 -9 -408
41 -9 -408
49 -10 -473
92 -17 -829
41 -9 -406
41 -9 -411
44 -9 -431
39 -9 -391
33 -8 -344
39 -8 -391
176 -29 -1524
173 -29 -1500
175 -29 -1520
175 -29 -1517
44 -6 -368
40 -8 -381
38 -8 -387
48 -10 -474
2802 -420 -23380
102 -18 -922
33 -7 -341
36 -6 -332
35 -8 -367
34 -8 -368
35 -8 -374
35 -8 -374
35 -8 -374
35 -8 -373
35 -8 -373
35 -8 -373
31 -8 -344
31 -7 -343
31 -7 -343
33 -8 -357
33 -8 -357
32 -8 -352
32 -8 -352
32 -8 -357
32 -8 -357
32 -8 -357
32 -8 -356
32 -8 -356
32 -8 -356
30 -7 -342
30 -7 -342
30 -7 -342
30 -7 -342
30 -7 -338
30 -7 -338
30 -7 -338
30 -7 -341
31 -7 -339
31 -7 -339
31 -7 -339
30 -7 -339
30 -7 -339
30 -7 -338
30 -7 -338
30 -7 -338
30 -7 -338
32 -7 -350
81 -14 -784
-1 -12 -389
-223 28 1085
-223 28 1087
-167 29 926
-161 28 897
-167 29 928
-162 28 898
-158 27 879
-200 36 1125
-198 36 1120
-187 36 1085
-175 33 1018
-175 33 1021
-139 25 798
-147 25 818
-182 32 1028
-209 37 1186
-209 37 1188
-518 98 3017
-463 93 2779
-482 95 2866
-201 37 1167
-195 37 1148
-200 38 1185
-200 38 1186
-208 40 1233
-200 38 1190
-201 38 1191
-201 38 1193
-216 41 1289
-218 42 1299
-219 42 1301
-197 37 1170
-231 44 1380
-262 50 1571
-349 48 1828
-235 45 1417
-245 48 1484
-267 50 1605
-232 44 1402
-232 44 1404
-281 54 1713
-492 98 3039
213 -47 -1391
54 -14 -390
53 -14 -391
53 -14 -391
58 -15 -422
-302 59 1869
-163 30 980
-283 55 1743
-326 63 2015
-326 63 2019
-327 63 2023
-150 27 902
-264 50 1629
-241 46 1483
-374 73 2331
-374 73 2337
-375 73 2343
-404 79 2530
-404 79 2537
-370 72 2330
-371 72 2335
-371 72 2341
-372 72 2347
-656 132 4205
-658 132 4224
-586 117 3761
49 -14 -387
50 -13 -382
212 -47 -1439
50 -13 -381
-552 121 3714
-526 105 3393
-677 136 4384
-529 105 3418
-531 106 3431
-382 75 2459
-949 192 6202
-954 193 6244
-1293 256 8394
-1040 205 6748
-1046 206 6797
-2312 472 15267
-1603 326 10581
-159 26 965
-5815 1097 37207
-3366 664 22005
2007 -401 -13219
3611 -727 -23890
2068 -417 -13719
2035 -411 -13521
2004 -404 -13328
9333 -1871 -61924
-3085 673 21351
-292983 65815 2058303
-26601 5314 176836
2971 -597 -19837
2063 -425 -13956
2030 -418 -13752
-153 27 977
-160 28 1019
589 -121 -4001
982 -197 -6601
974 -195 -6555
1148 -232 -7765
-1245 244 8311
1127 -227 -7639
1117 -225 -7577
786 -157 -5327
-185 32 1187
-1360 263 9084
1045 -208 -7086
1036 -206 -7033
-1408 272 9450
1010 -201 -6879
1001 -199 -6830
507 -102 -3489
-236 42 1547
450 -91 -3119
448 -91 -3109
408 -83 -2838
406 -82 -2829
405 -82 -2821
403 -82 -2812
509 -102 -3542
162 -35 -1166
188 -40 -1348
339 -69 -2386
338 -69 -2380
337 -68 -2374
293 -60 -2077
25674 -4990 -177054
232 -48 -1663
164 -35 -1195
164 -35 -1194
288 -59 -2055
282 -55 -1971
286 -39 -1731
281 -38 -1699
253 -52 -1819
252 -52 -1815
251 -52 -1812
251 -51 -1808
220 -30 -1349
236 -49 -1711
224 -46 -1626
223 -46 -1623
222 -46 -1621
222 -46 -1618
248 -51 -1801
247 -51 -1797
246 -50 -1794
317 -64 -2297
199 -41 -1466
199 -41 -1464
175 -37 -1304
189 -40 -1409
189 -40 -1407
188 -40 -1405
180 -38 -1348
179 -38 -1346
172 -36 -1293
171 -22 -1067
165 -23 -1055
166 -35 -1263
166 -35 -1262
165 -34 -1260
165 -34 -1258
142 -30 -1096
157 -33 -1204
142 -30 -1094
152 -32 -1167
151 -32 -1165
151 -32 -1164
150 -31 -1163
145 -30 -1123
150 -31 -1160
139 -29 -1085
139 -29 -1084
139 -29 -1083
138 -29 -1082
180 -37 -1387
128 -27 -1013
128 -27 -1012
128 -27 -1011
124 -26 -982
123 -26 -981
119 -25 -953
123 -26 -979
-158 26 1116
-994 183 7364
40 -10 -364
40 -10 -364
40 -10 -364
70 0 -309
62 -2 -304
37 -11 -371
85 -22 -755
87 -20 -733
87 -19 -725
40 -10 -361
39 -10 -365
33 -12 -380
113 -27 -982
114 -25 -941
90 -20 -772
95 -21 -813
95 -21 -812
90 -19 -759
90 -19 -752
90 -19 -757
85 -18 -725
85 -18 -725
83 -18 -710
83 -18 -709
81 -18 -695
81 -18 -694
81 -18 -694
81 -17 -693
80 -17 -693
84 -18 -723
84 -18 -723
108 -22 -907
76 -17 -665
76 -17 -664
76 -17 -664
74 -16 -651
74 -16 -649
73 -16 -636
73 -16 -636
72 -16 -636
72 -16 -635
71 -15 -623
71 -15 -623
70 -15 -623
75 -16 -657
69 -15 -609
68 -15 -609
68 -15 -609
67 -15 -600
67 -15 -599
66 -14 -589
65 -14 -589
65 -14 -588
65 -14 -588
65 -14 -588
64 -14 -578
65 -14 -587
67 -15 -605
70 -15 -628
62 -14 -564
61 -14 -564
60 -13 -549
61 -14 -563
57 -13 -528
56 -13 -522
56 -12 -522
56 -12 -522
57 -13 -525
55 -12 -514
55 -12 -513
54 -12 -506
54 -12 -506
54 -12 -505
54 -12 -504
56 -12 -522
56 -12 -522
56 -12 -522
100 -20 -882
52 -11 -489
52 -11 -489
52 -11 -491
50 -11 -481
50 -11 -481
96 -19 -856
44 -10 -435
43 -10 -429
44 -10 -428
46 -10 -435
45 -10 -438
45 -10 -437
45 -10 -437
42 -10 -416
42 -10 -416
42 -10 -415
42 -10 -415
42 -10 -415
40 -9 -402
41 -9 -411
42 -9 -409
41 -9 -409
44 -10 -428
49 -10 -474
93 -17 -832
93 -17 -827
40 -9 -399
41 -9 -412
41 -9 -411
49 -10 -479
37 -8 -375
39 -9 -392
-371 54 3006
38 -8 -388
37 -8 -379
48 -10 -469
103 -18 -927
33 -8 -344
35 -7 -337
32 -8 -344
35 -8 -368
35 -8 -367
36 -8 -373
35 -8 -374
35 -8 -374
35 -8 -374
35 -8 -374
35 -8 -374
31 -8 -344
31 -8 -344
31 -8 -344
33 -8 -358
32 -8 -353
32 -8 -353
32 -8 -353
32 -8 -357
32 -8 -357
32 -8 -357
32 -8 -357
32 -8 -357
32 -8 -357
30 -7 -343
30 -7 -342
30 -7 -342
30 -7 -342
30 -7 -338
30 -7 -338
30 -7 -338
30 -7 -342
30 -7 -342
30 -7 -342
30 -7 -341
30 -7 -341
30 -7 -341
30 -7 -341
29 -7 -341
29 -7 -341
29 -7 -334
34 -8 -383
80 -15 -799
-1 -12 -390
-222 28 1083
-150 28 862
-150 28 863
-150 28 864
-161 28 896
-187 33 1047
-187 33 1048
-185 33 1044
-165 33 984
-162 33 976
-136 25 790
-181 32 1026
-208 37 1184
-208 37 1185
-204 37 1173
-204 37 1175
-226 42 1310
-199 38 1179
-199 38 1180
-207 40 1227
-207 40 1228
-207 40 1230
-202 38 1194
-215 42 1282
-215 42 1284
-215 42 1286
-215 42 1287
-343 69 2083
-229 44 1372
-261 50 1560
2482 -2 -8507
-213 45 1335
-213 45 1337
-222 47 1396
-137 25 811
-255 46 1498
-266 51 1600
-231 44 1398
-496 99 3045
-497 99 3056
214 -48 -1407
54 -14 -392
52 -15 -397
53 -14 -386
-300 59 1854
-300 59 1858
-153 28 916
-158 29 949
-149 27 897
-324 64 2006
-324 64 2011
-239 46 1472
-239 46 1474
-370 73 2308
-371 73 2314
-384 74 2374
-769 107 4162
-400 79 2510
-401 79 2517
-491 91 3012
-368 72 2319
-659 132 4198
-528 105 3360
-521 104 3315
-522 104 3327
51 -14 -386
51 -14 -386
51 -14 -387
51 -14 -387
88 -22 -633
-289 56 1827
-532 106 3414
-533 106 3426
-535 106 3439
-953 192 6187
-1178 239 7669
-980 198 6401
-1520 312 10021
-1535 315 10130
-158 26 963
-11289 2258 73991
-12248 2449 80364
2533 -528 -16977
2485 -518 -16674
136641 -28302 -914799
68969 -14282 -462263
-6852 1414 45914
-2493 675 19233
267 -58 -1850
282 -61 -1953
3950 -819 -26670
2155 -448 -14594
-152 27 973
7289 -1473 -48783
565 -117 -3837
1040 -213 -7023
1031 -211 -6971
1187 -242 -8026
1176 -240 -7958
1164 -237 -7891
1153 -235 -7826
1143 -233 -7761
-182 33 1174
-2761 544 18498
1111 -226 -7574
-1270 251 8544
1081 -220 -7396
1072 -218 -7338
554 -114 -3822
521 -107 -3603
-234 42 1542
413 -85 -2872
411 -84 -2863
409 -84 -2854
519 -105 -3609
517 -105 -3595
163 -35 -1172
344 -71 -2416
343 -70 -2410
341 -70 -2404
348 -72 -2456
347 -71 -2450
315 -65 -2229
294 -61 -2086
233 -49 -1671
165 -35 -1200
232 -49 -1666
290 -60 -2068
338 -69 -2407
-199 21 1098
-356 66 2419
254 -53 -1829
253 -53 -1826
255 -53 -1839
239 -50 -1726
238 -49 -1723
225 -47 -1637
225 -47 -1634
224 -47 -1632
223 -47 -1629
249 -52 -1814
249 -51 -1811
248 -51 -1807
313 -64 -2267
200 -42 -1475
200 -42 -1473
175 -37 -1302
190 -40 -1408
190 -40 -1406
189 -40 -1404
181 -38 -1347
188 -39 -1400
172 -23 -1073
172 -24 -1095
168 -35 -1272
167 -35 -1270
167 -36 -1276
166 -35 -1275
166 -35 -1273
143 -31 -1101
143 -31 -1106
142 -31 -1105
142 -30 -1098
152 -32 -1171
152 -32 -1170
151 -32 -1168
146 -31 -1128
140 -30 -1091
140 -30 -1090
140 -30 -1089
139 -30 -1088
139 -30 -1087
181 -38 -1395
129 -28 -1018
129 -28 -1017
128 -27 -1016
124 -27 -986
124 -27 -985
120 -26 -956
130 -28 -1032
-215 37 1545
-971 181 7197
40 -11 -365
40 -11 -365
40 -11 -364
57 -9 -408
56 -9 -411
107 -24 -886
107 -23 -874
107 -23 -873
88 -19 -719
39 -11 -365
37 -11 -370
52 -14 -491
115 -25 -944
114 -25 -943
96 -21 -806
95 -21 -811
86 -19 -731
90 -20 -763
86 -19 -730
85 -19 -730
83 -18 -714
83 -18 -714
81 -18 -699
81 -18 -701
81 -17 -691
81 -17 -690
85 -18 -721
84 -18 -725
84 -18 -725
108 -23 -911
77 -17 -666
76 -17 -666
76 -17 -666
75 -17 -653
74 -16 -652
73 -16 -640
73 -16 -640
72 -16 -639
72 -16 -639
71 -16 -627
71 -16 -627
70 -16 -626
75 -16 -661
69 -15 -613
68 -15 -612
68 -15 -612
67 -15 -603
67 -15 -603
65 -15 -592
66 -15 -590
65 -15 -590
65 -15 -589
65 -14 -589
64 -14 -579
65 -14 -588
73 -16 -653
70 -15 -630
73 -16 -653
60 -13 -550
60 -13 -550
61 -14 -564
57 -13 -529
56 -13 -526
56 -13 -523
56 -13 -523
55 -12 -515
55 -12 -515
55 -12 -515
54 -12 -507
54 -12 -507
54 -12 -506
54 -12 -506
56 -13 -525
56 -12 -524
56 -12 -524
52 -12 -491
51 -12 -491
100 -20 -887
51 -12 -490
50 -12 -484
50 -11 -483
50 -11 -483
44 -10 -429
44 -10 -430
45 -10 -438
45 -10 -439
45 -10 -438
45 -10 -438
42 -10 -417
42 -10 -416
42 -10 -416
42 -10 -416
42 -10 -416
42 -10 -416
41 -10 -412
41 -10 -411
41 -10 -411
41 -10 -411
49 -11 -475
93 -18 -835
41 -9 -410
39 -9 -401
41 -9 -412
41 -9 -412
44 -10 -433
38 -9 -382
38 -9 -387
48 -10 -472
176 -30 -1532
38 -9 -389
103 -19 -930
33 -8 -344
25 -10 -364
36 -8 -374
35 -8 -368
35 -8 -368
36 -8 -374
36 -8 -374
35 -8 -373
35 -8 -373
35 -8 -373
35 -8 -373
32 -8 -343
32 -8 -343
31 -8 -344
33 -8 -358
32 -8 -354
32 -8 -353
32 -8 -353
32 -8 -358
32 -8 -358
32 -8 -358
32 -8 -357
32 -8 -357
32 -8 -357
30 -8 -343
30 -8 -343
30 -8 -343
30 -7 -343
30 -7 -339
30 -7 -339
30 -7 -339
30 -7 -342
30 -7 -342
30 -7 -342
30 -7 -342
30 -7 -342
30 -7 -342
30 -7 -342
30 -7 -341
29 -7 -341
29 -7 -334
34 -8 -384
80 -15 -802
-1 -12 -390
-149 29 860
-149 29 861
-190 37 1109
-183 36 1067
-186 33 1044
-186 33 1045
-186 33 1046
-172 34 1006
-171 34 1002
-172 34 1008
-172 33 1009
-167 32 983
-207 37 1179
-191 37 1128
-211 42 1253
-196 39 1165
-196 39 1166
-196 39 1168
-201 40 1206
-201 40 1207
-201 40 1209
-195 39 1167
-209 42 1259
-209 42 1261
-209 42 1263
-185 37 1126
-441 92 2720
-223 44 1346
-250 50 1515
-373 49 1908
-364 49 1876
-242 48 1468
-86 43 902
-212 45 1335
-278 51 1641
-246 45 1449
-293 55 1750
-481 98 2973
-473 97 2939
215 -49 -1413
214 -49 -1411
-298 59 1836
-267 58 1716
-267 58 1719
-156 29 940
-276 55 1713
-317 63 1974
-257 51 1594
-238 46 1465
-367 73 2286
-367 73 2292
-431 82 2630
-816 111 4361
-615 96 3465
-342 75 2244
-422 85 2667
-147 27 900
-181 33 1104
-520 105 3301
-521 105 3313
-536 106 3378
-582 118 3712
200 -45 -1347
51 -14 -387
51 -14 -387
51 -14 -387
85 -21 -607
-521 106 3355
-287 56 1817
-153 28 946
-929 189 6030
-1141 233 7429
-1149 235 7489
-944 192 6150
-949 193 6191
-955 194 6233
-927 191 6088
-932 192 6128
-1487 308 9819
-9161 1850 60096
16099 -3260 -105862
210018 -43459 -1396840
84063 -17391 -559734
52511 -10861 -350036
2853 -566 -18680
485 -103 -3294
47 -14 -389
28 -22 -461
537 -115 -3675
4306 -902 -29100
13034 -2690 -87669
-153 28 976
-185 34 1194
-185 34 1195
1274 -265 -8657
1309 -276 -8954
1295 -273 -8870
1193 -246 -8091
1181 -243 -8022
1170 -241 -7954
-2563 510 17166
1148 -236 -7822
1137 -234 -7758
1127 -232 -7694
1116 -229 -7632
563 -117 -3884
560 -116 -3868
572 -122 -4004
1067 -219 -7335
-139 24 897
459 -96 -3210
6130 -1225 -41953
5863 -1171 -40169
847 -172 -5860
350 -74 -2470
348 -73 -2464
347 -73 -2458
322 -68 -2286
353 -74 -2506
318 -66 -2250
-21939 4405 152212
297 -63 -2122
296 -62 -2117
295 -62 -2112
314 -66 -2248
-237 26 1321
257 -54 -1853
240 -51 -1739
240 -50 -1736
227 -48 -1648
226 -48 -1646
226 -48 -1643
237 -50 -1723
251 -53 -1828
251 -52 -1825
250 -52 -1821
316 -65 -2289
202 -43 -1484
201 -43 -1482
176 -38 -1310
191 -41 -1416
191 -41 -1414
190 -40 -1412
190 -40 -1410
173 -23 -1077
176 -37 -1330
169 -36 -1286
168 -36 -1285
168 -36 -1283
167 -36 -1281
189 -40 -1442
144 -31 -1112
143 -31 -1111
143 -31 -1110
153 -33 -1185
153 -33 -1184
152 -33 -1182
152 -33 -1181
146 -32 -1140
141 -30 -1096
141 -31 -1101
140 -31 -1100
140 -30 -1099
140 -30 -1097
182 -39 -1412
122 -27 -970
129 -28 -1027
129 -28 -1026
129 -28 -1025
125 -27 -994
124 -27 -993
121 -26 -960
120 -26 -959
130 -28 -1035
-211 37 1526
-948 178 7038
40 -11 -365
40 -11 -365
40 -11 -365
109 -23 -865
108 -24 -882
108 -24 -882
108 -24 -877
44 -11 -398
57 -13 -483
93 0 -389
38 -11 -361
103 -23 -862
115 -25 -943
115 -26 -955
95 -49 -1325
114 -25 -944
91 -20 -766
86 -19 -733
86 -19 -733
86 -19 -732
84 -19 -717
84 -19 -716
83 -19 -716
81 -18 -701
81 -18 -700
81 -18 -700
81 -18 -700
85 -19 -731
84 -19 -730
80 -18 -698
108 -23 -918
73 -17 -646
76 -17 -670
75 -17 -657
74 -17 -659
74 -17 -656
73 -17 -644
72 -17 -645
73 -16 -637
73 -16 -637
71 -16 -629
71 -16 -628
72 -16 -639
75 -17 -663
69 -16 -614
69 -16 -614
68 -16 -614
68 -15 -613
67 -15 -604
66 -15 -594
65 -15 -593
65 -15 -593
64 -15 -583
65 -15 -592
65 -15 -592
65 -15 -591
73 -16 -657
70 -16 -633
102 -22 -891
62 -14 -566
62 -14 -566
57 -13 -530
57 -13 -530
56 -13 -527
56 -13 -527
56 -13 -527
55 -13 -519
55 -13 -518
55 -13 -518
54 -13 -510
54 -12 -508
54 -12 -507
54 -12 -507
56 -13 -526
56 -13 -525
56 -13 -525
52 -12 -492
52 -12 -494
51 -12 -492
51 -12 -491
50 -12 -485
50 -12 -484
68 0 -341
44 -10 -430
48 -9 -414
45 -10 -440
45 -10 -439
45 -10 -439
45 -10 -439
42 -10 -417
42 -10 -417
42 -10 -417
42 -10 -417
42 -10 -417
42 -10 -416
41 -10 -412
41 -10 -412
41 -10 -412
41 -10 -412
49 -11 -478
94 -18 -838
71 -14 -648
40 -9 -402
40 -9 -402
41 -10 -415
33 -8 -348
34 -8 -346
37 -9 -384
37 -9 -384
38 -9 -392
48 -11 -475
48 -10 -472
90 -17 -827
-688 104 5647
34 -8 -342
33 -8 -344
32 -8 -346
35 -8 -369
35 -8 -369
35 -8 -369
36 -8 -374
36 -8 -374
36 -8 -374
35 -8 -374
35 -8 -374
35 -8 -374
32 -8 -344
32 -8 -344
32 -8 -344
33 -8 -358
33 -8 -353
33 -8 -353
32 -8 -353
33 -8 -357
33 -8 -357
33 -8 -357
33 -8 -357
33 -8 -357
33 -8 -356
31 -8 -342
31 -8 -342
31 -7 -342
30 -8 -343
30 -8 -339
30 -8 -339
30 -7 -339
30 -8 -343
30 -8 -343
30 -8 -342
30 -8 -342
30 -7 -342
30 -7 -342
30 -7 -342
30 -7 -342
30 -7 -342
29 -7 -335
34 -8 -385
81 -16 -804
-1 -12 -391
-207 26 1009
-167 33 966
-167 33 967
-197 36 1111
-185 34 1040
-185 34 1042
-254 33 1253
-235 33 1194
-235 33 1196
-807 23 2955
-172 34 1007
-172 34 1008
-158 31 925
-153 30 900
-195 39 1159
-195 39 1161
-195 39 1162
-202 40 1207
-202 40 1208
-203 40 1210
-210 42 1259
-210 42 1260
-210 42 1262
-190 38 1138
-190 38 1140
-444 93 2725
-222 44 1339
-274 51 1601
-375 49 1908
-372 49 1901
-343 51 1835
-211 45 1328
-100 42 922
-135 25 807
-149 28 898
-269 54 1656
-265 54 1645
-451 95 2832
-287 59 1786
-265 58 1701
-265 58 1704
-265 58 1707
-280 61 1804
-253 55 1628
-280 61 1811
-247 54 1594
-269 51 1631
-234 46 1443
-234 46 1446
-358 73 2239
-401 76 2433
-426 82 2601
-845 114 4477
-413 81 2550
-360 73 2267
-553 87 3116
-364 81 2397
-128 56 1256
-147 27 898
-257 47 1558
-221 41 1346
-542 107 3399
-543 107 3411
200 -46 -1361
51 -14 -388
51 -14 -388
-638 132 4117
-505 104 3254
-642 133 4154
-439 88 2810
-906 186 5881
-911 187 5919
-137 25 848
-2026 421 13268
-1391 291 9151
-1403 294 9242
-1415 296 9335
-1428 299 9429
-951 195 6237
-43175 9021 287091
-62272 13008 414532
-111824 23354 745222
2503 -526 -16756
186 -42 -1298
185 -42 -1296
49 -13 -383
55 -19 -493
5480 -1256 -38508
-157 29 1000
-8365 1738 56176
1322 -278 -8984
1308 -275 -8899
1295 -272 -8815
1281 -269 -8733
884 -187 -6047
877 -185 -6009
870 -184 -5971
1230 -258 -8421
1217 -256 -8346
1205 -253 -8273
1193 -250 -8201
1182 -248 -8130
572 -120 -3948
586 -126 -4089
549 -118 -3839
579 -124 -4054
-1203 245 8209
539 -112 -3736
536 -111 -3721
533 -110 -3707
-1997 398 13622
351 -74 -2466
352 -75 -2490
351 -74 -2483
325 -69 -2308
357 -76 -2532
323 -69 -2296
322 -68 -2291
-282 53 1907
299 -64 -2136
297 -63 -2131
-254 48 1717
-1612 319 11141
-2200 415 14937
259 -55 -1867
243 -52 -1767
242 -52 -1763
229 -49 -1673
228 -49 -1671
240 -52 -1754
255 -55 -1863
254 -54 -1859
254 -54 -1855
253 -54 -1852
321 -68 -2337
203 -43 -1494
202 -43 -1491
177 -38 -1317
193 -42 -1435
192 -42 -1432
191 -41 -1420
-2087 410 14784
174 -24 -1083
177 -38 -1339
177 -38 -1337
170 -37 -1302
169 -37 -1300
169 -37 -1298
168 -37 -1296
190 -42 -1461
144 -32 -1124
144 -33 -1128
144 -32 -1127
154 -35 -1205
153 -34 -1203
153 -34 -1188
153 -33 -1186
147 -32 -1146
152 -33 -1184
141 -31 -1100
141 -31 -1105
141 -31 -1104
155 -34 -1213
183 -39 -1421
123 -27 -974
130 -29 -1032
130 -29 -1031
129 -29 -1029
129 -29 -1028
125 -28 -998
129 -28 -1026
121 -27 -968
120 -27 -967
130 -29 -1044
123 -27 -993
-154 26 1099
-210 37 1521
65 -16 -552
40 -11 -366
112 -25 -910
108 -24 -886
108 -24 -885
64 -16 -551
40 -11 -365
44 -12 -398
40 -10 -362
39 -11 -365
39 -11 -366
103 -24 -865
115 -26 -960
115 -26 -950
115 -26 -949
121 -17 -822
114 -25 -946
86 -20 -735
86 -20 -735
84 -19 -719
84 -19 -718
84 -19 -718
82 -19 -703
81 -19 -703
81 -19 -702
81 -18 -702
85 -19 -733
85 -19 -732
88 -20 -761
115 -25 -974
108 -24 -921
77 -18 -672
75 -17 -659
75 -17 -658
75 -17 -658
73 -17 -645
73 -17 -645
73 -17 -645
72 -17 -644
71 -16 -632
71 -16 -632
72 -17 -643
72 -17 -643
69 -16 -618
68 -16 -617
67 -16 -610
68 -16 -618
68 -16 -618
65 -15 -598
65 -15 -598
66 -15 -591
65 -15 -581
64 -16 -600
65 -15 -593
65 -15 -593
73 -17 -659
70 -16 -635
70 -16 -634
62 -14 -569
62 -14 -569
57 -13 -532
57 -13 -531
57 -13 -527
56 -13 -527
56 -13 -526
55 -13 -519
55 -13 -518
55 -13 -518
54 -13 -510
54 -13 -510
54 -13 -510
55 -13 -517
56 -13 -528
56 -13 -529
60 -14 -563
51 -12 -495
51 -12 -495
51 -12 -495
100 -21 -901
50 -12 -488
68 0 -345
45 -11 -442
50 -8 -409
44 -10 -429
45 -11 -440
45 -11 -440
45 -11 -440
45 -11 -440
42 -10 -418
42 -10 -418
42 -10 -418
42 -10 -418
42 -10 -417
42 -10 -417
41 -10 -413
41 -10 -413
41 -10 -413
44 -10 -433
49 -11 -479
40 -9 -402
40 -9 -402
41 -10 -415
41 -10 -415
33 -8 -348
33 -8 -348
35 -8 -361
37 -9 -384
31 -12 -420
30 -12 -412
37 -9 -388
38 -9 -392
38 -9 -391
48 -11 -474
90 -18 -837
104 -19 -938
34 -8 -343
32 -8 -347
32 -8 -347
35 -9 -371
35 -9 -371
35 -9 -370
35 -9 -376
35 -9 -376
35 -9 -376
35 -9 -376
35 -9 -376
35 -9 -375
31 -8 -345
31 -8 -345
31 -8 -345
33 -8 -359
33 -8 -353
33 -8 -353
33 -8 -353
33 -8 -358
33 -8 -357
33 -8 -357
33 -8 -357
33 -8 -357
33 -8 -357
31 -8 -343
31 -8 -343
31 -8 -343
31 -8 -343
30 -8 -339
30 -7 -339
30 -7 -338
31 -8 -342
30 -8 -342
30 -7 -342
30 -7 -342
30 -7 -342
30 -7 -342
30 -7 -341
30 -7 -341
30 -7 -341
30 -7 -341
35 -8 -384
82 -16 -801
-1 -13 -392
-134 26 759
-225 32 1139
-181 36 1059
-171 34 995
-171 34 996
-171 34 997
-145 26 805
-171 34 999
-171 34 1001
-185 34 1043
-171 34 1003
-171 34 1004
-182 36 1072
-189 38 1116
-153 30 895
-194 39 1152
-194 39 1153
-194 39 1155
-194 39 1156
-201 40 1201
-202 40 1202
-202 40 1204
-189 38 1129
-209 42 1254
-209 42 1255
-189 38 1133
-189 38 1134
-439 93 2694
-221 45 1331
-247 50 1496
-227 46 1373
-227 46 1375
-332 48 1759
-228 50 1439
-228 50 1441
-137 28 846
-153 30 920
-149 29 896
-304 63 1884
-289 59 1785
-289 59 1789
-285 59 1777
-285 59 1780
-271 56 1691
-302 63 1890
-307 63 1912
-307 63 1916
-307 63 1920
-247 51 1546
-230 46 1424
-348 72 2189
-338 72 2148
-374 78 2357
-374 78 2364
-375 78 2370
-375 78 2376
-738 100 3911
-707 98 3778
-672 107 3797
-361 81 2379
-127 56 1251
-170 30 1016
-570 110 3526
-524 105 3308
-561 109 3492
-563 109 3505
-496 103 3187
-627 131 4047
-425 96 2852
-426 96 2861
-427 96 2870
-852 179 5549
-856 180 5582
-860 180 5616
-135 25 841
-1047 220 6861
-1328 281 8729
-1481 306 9645
-1887 374 12056
-1688 342 10904
-1374 290 9070
-1088 229 7179
-213 90 2100
-171 30 1049
-1192 248 7882
-4918 1034 32727
2693 -571 -18023
488 -104 -3279
2587 -549 -17355
2537 -538 -17039
2697 -578 -18228
8381 -1960 -59201
-11807 2751 83353
-6771 1421 45456
1158 -246 -7871
1359 -289 -9244
1345 -286 -9153
914 -195 -6246
907 -193 -6205
759 -162 -5207
754 -161 -5178
1275 -270 -8729
1262 -268 -8649
1249 -265 -8570
597 -128 -4131
-24350 5093 166260
-29544 6178 201948
561 -122 -3918
-1147 236 7804
-1155 237 7869
488 -105 -3413
575 -123 -4009
559 -120 -3925
21505 -4486 -148857
-1659 342 11441
360 -78 -2554
358 -78 -2547
357 -77 -2540
330 -72 -2357
329 -72 -2351
328 -71 -2345
327 -71 -2340
305 -67 -2207
-6289 1318 44196
356 -78 -2575
-1572 314 10889
-1588 317 11015
261 -56 -1882
245 -53 -1780
244 -53 -1776
231 -50 -1685
243 -53 -1770
258 -56 -1881
257 -56 -1877
256 -55 -1873
255 -54 -1853
255 -55 -1866
205 -45 -1516
205 -45 -1514
204 -45 -1512
179 -39 -1333
194 -43 -1443
193 -42 -1441
177 -39 -1327
175 -24 -1088
178 -39 -1347
171 -38 -1310
171 -38 -1309
170 -38 -1307
170 -38 -1305
169 -38 -1303
192 -42 -1470
145 -33 -1129
145 -33 -1128
155 -35 -1205
155 -35 -1204
154 -35 -1202
154 -34 -1201
154 -34 -1199
148 -33 -1157
142 -32 -1118
142 -32 -1117
142 -32 -1116
141 -32 -1115
156 -35 -1226
-7415 1504 55266
131 -30 -1042
131 -30 -1041
130 -30 -1040
130 -29 -1039
130 -29 -1038
125 -28 -1007
129 -29 -1036
121 -28 -976
120 -28 -980
120 -28 -979
131 -29 -1047
110 -26 -901
110 -25 -892
110 -25 -891
109 -25 -890
112 -25 -913
109 -25 -889
-153 27 1101
-209 38 1526
64 -16 -552
40 -11 -365
40 -11 -365
39 -11 -366
37 -12 -372
64 -21 -656
54 -47 -1098
85 -20 -718
115 -26 -960
114 -26 -959
115 -26 -949
86 -20 -737
84 -19 -721
84 -19 -721
82 -19 -706
82 -19 -705
82 -19 -705
81 -19 -704
85 -20 -736
85 -20 -735
81 -19 -703
109 -24 -926
116 -25 -978
109 -24 -924
115 -25 -976
75 -17 -661
75 -17 -660
73 -17 -648
73 -17 -647
73 -17 -647
73 -17 -646
71 -17 -634
71 -17 -634
71 -17 -633
72 -17 -645
72 -17 -644
69 -16 -619
69 -16 -619
67 -16 -610
68 -16 -618
68 -16 -618
66 -16 -598
66 -16 -598
65 -16 -597
64 -15 -587
64 -15 -587
65 -15 -596
65 -15 -596
70 -16 -639
70 -16 -639
60 -15 -559
62 -15 -571
62 -14 -569
57 -14 -533
57 -14 -532
57 -13 -528
57 -13 -528
57 -13 -532
55 -13 -520
55 -13 -519
55 -13 -519
54 -13 -511
54 -13 -511
54 -13 -511
55 -13 -518
56 -13 -529
56 -13 -529
59 -14 -558
52 -12 -495
52 -12 -495
51 -12 -495
50 -12 -481
223 2 -1013
53 -8 -414
48 -9 -417
36 -14 -461
37 -14 -473
37 -14 -472
37 -14 -472
37 -14 -472
34 -13 -447
34 -13 -447
34 -13 -447
34 -13 -446
34 -13 -446
42 -10 -418
42 -10 -414
41 -10 -414
41 -10 -413
49 -11 -480
94 -19 -848
49 -11 -478
40 -10 -402
40 -10 -402
42 -10 -415
41 -10 -415
33 -8 -348
34 -8 -347
39 -9 -394
38 -9 -381
38 -9 -392
38 -9 -388
38 -9 -388
38 -9 -392
38 -9 -392
48 -11 -475
36 -9 -377
33 -8 -347
38 -6 -332
32 -8 -347
36 -9 -377
35 -9 -371
35 -9 -371
35 -9 -371
35 -9 -377
35 -9 -377
35 -9 -376
35 -9 -376
35 -9 -376
35 -9 -376
31 -8 -346
31 -8 -346
31 -8 -346
33 -8 -360
32 -8 -355
32 -8 -355
32 -8 -355
33 -8 -359
33 -8 -359
33 -8 -359
32 -8 -359
32 -8 -359
32 -8 -359
31 -8 -344
31 -8 -344
31 -8 -343
31 -8 -343
30 -8 -339
30 -8 -339
30 -8 -339
31 -8 -343
31 -8 -342
30 -8 -342
30 -8 -342
30 -8 -342
30 -8 -342
30 -8 -342
30 -8 -342
30 -8 -342
30 -7 -341
44 -10 -465
82 -16 -803
-1 -13 -392
-170 34 991
-170 34 992
-175 35 1024
-184 34 1035
-170 34 995
-170 34 996
-196 36 1110
-248 36 1275
-164 33 965
-164 33 966
-186 38 1105
-193 39 1145
-193 39 1146
-193 39 1148
-194 39 1149
-194 39 1151
-200 41 1195
-194 39 1154
-201 41 1198
-208 42 1245
-208 42 1247
-208 42 1249
-187 38 1121
-189 38 1129
-148 29 879
-219 45 1324
-217 45 1317
-232 48 1414
-226 46 1367
-226 46 1369
-269 51 1586
-226 50 1432
-220 48 1384
-130 26 788
-272 56 1681
-287 59 1775
-287 59 1779
-287 60 1782
-273 56 1693
-304 63 1892
-304 63 1896
-267 55 1660
-305 63 1904
-222 45 1374
-249 51 1550
-249 51 1553
-346 72 2174
-370 78 2334
-425 82 2578
-371 78 2346
-372 78 2352
-384 50 2006
-734 100 3897
-357 77 2302
-126 56 1246
-134 25 824
-533 113 3439
-478 101 3077
-469 100 3041
-586 126 3814
-561 123 3691
-513 118 3456
-515 118 3469
-422 96 2835
-428 97 2885
-659 152 4474
-661 152 4496
-767 177 5230
-125 26 811
-774 179 5290
-925 215 6335
-1355 286 8866
-1514 313 9814
-1198 261 7979
2434 -340 -13426
33722 -4781 -187236
-687 158 4725
-240 114 2552
-692 159 4774
-29410 5849 189714
2300 -477 -15150
3129 -677 -21072
3057 -662 -20608
2988 -646 -20164
2150 -445 -14229
2858 -618 -19331
-8740 2055 61686
781 -187 -5585
1550 -336 -10545
1531 -332 -10428
1209 -260 -8211
1197 -257 -8140
1415 -303 -9616
946 -204 -6458
939 -202 -6414
931 -201 -6370
924 -199 -6328
771 -166 -5293
1324 -284 -9060
1310 -280 -8974
1296 -277 -8889
608 -132 -4204
568 -123 -3940
565 -123 -3924
562 -122 -3907
594 -129 -4130
-1118 232 7617
588 -127 -4095
585 -127 -4077
581 -126 -4059
-1150 239 7872
-1176 244 8075
373 -82 -2649
362 -79 -2575
361 -79 -2568
334 -73 -2380
332 -73 -2374
331 -73 -2369
330 -72 -2363
307 -68 -2203
306 -67 -2198
-1293 267 8999
-1304 270 9086
356 -78 -2564
268 -59 -1945
264 -59 -1922
266 -59 -1937
248 -55 -1812
247 -55 -1809
247 -55 -1806
233 -52 -1711
245 -54 -1799
261 -58 -1913
260 -58 -1910
259 -57 -1906
259 -57 -1902
339 -74 -2477
207 -47 -1549
206 -46 -1524
205 -45 -1521
196 -43 -1454
195 -43 -1452
179 -40 -1336
182 -26 -1132
182 -25 -1131
180 -40 -1374
180 -40 -1372
172 -39 -1318
172 -39 -1316
171 -39 -1314
171 -38 -1312
170 -38 -1311
162 -37 -1253
146 -33 -1134
145 -33 -1133
156 -35 -1211
155 -35 -1210
155 -35 -1208
155 -35 -1207
154 -35 -1205
154 -35 -1204
143 -33 -1124
143 -32 -1122
142 -32 -1121
142 -32 -1120
157 -35 -1232
-6024 1235 44887
131 -30 -1047
131 -30 -1046
131 -30 -1045
126 -29 -1013
130 -30 -1043
130 -30 -1041
122 -28 -981
121 -28 -980
121 -28 -979
121 -28 -978
121 -28 -977
131 -30 -1056
115 -27 -936
110 -26 -898
113 -26 -922
106 -25 -874
109 -25 -896
109 -25 -895
-149 27 1085
64 -16 -556
39 -11 -367
39 -11 -367
39 -11 -367
37 -12 -372
83 -27 -833
18 -19 -438
39 -11 -367
93 -22 -790
93 -22 -789
93 -22 -789
115 -27 -963
114 -27 -961
114 -27 -960
79 -67 -1588
86 -20 -741
82 -19 -710
82 -19 -710
82 -19 -709
81 -19 -709
82 -19 -706
86 -20 -737
81 -19 -705
110 -25 -930
116 -26 -982
109 -24 -928
116 -26 -980
75 -18 -662
75 -18 -662
73 -17 -649
73 -17 -649
73 -17 -648
73 -17 -648
71 -17 -636
71 -17 -635
73 -17 -647
72 -17 -646
69 -16 -621
69 -16 -621
69 -16 -620
68 -16 -611
69 -16 -620
66 -16 -600
66 -16 -600
66 -16 -599
66 -16 -599
66 -16 -599
64 -15 -588
65 -16 -598
70 -17 -641
70 -17 -641
60 -15 -559
60 -15 -560
61 -15 -578
62 -15 -572
57 -14 -535
57 -14 -531
57 -14 -531
57 -14 -530
55 -13 -522
55 -13 -522
55 -13 -520
55 -13 -520
54 -13 -512
54 -13 -512
54 -13 -512
56 -13 -531
56 -13 -531
56 -13 -530
46 -11 -447
52 -13 -496
52 -13 -496
50 -12 -482
27347 607 -118954
52 -9 -420
50 -8 -402
44 -11 -434
43 -12 -439
36 -14 -461
37 -14 -473
37 -14 -473
37 -14 -473
37 -14 -473
35 -13 -448
34 -13 -448
34 -13 -447
34 -13 -447
34 -13 -447
34 -13 -447
34 -13 -442
34 -13 -442
36 -14 -465
49 -12 -481
33 -13 -441
41 -10 -413
40 -10 -404
41 -10 -417
41 -10 -417
33 -9 -349
33 -9 -348
39 -10 -396
39 -9 -390
41 -8 -384
38 -9 -393
38 -9 -389
38 -9 -393
38 -9 -393
33 -9 -354
33 -8 -347
33 -8 -347
32 -8 -348
37 -7 -334
36 -9 -378
35 -9 -372
35 -9 -372
36 -9 -377
35 -9 -377
35 -9 -377
35 -9 -377
35 -9 -377
35 -9 -377
35 -9 -377
32 -8 -346
31 -8 -346
31 -8 -346
33 -8 -360
32 -8 -356
32 -8 -355
33 -8 -360
33 -8 -360
33 -8 -360
33 -8 -360
33 -8 -360
32 -8 -359
32 -8 -359
31 -8 -345
31 -8 -345
31 -8 -345
30 -8 -345
30 -8 -341
30 -8 -341
30 -8 -341
30 -8 -344
30 -8 -344
30 -8 -344
30 -8 -344
30 -8 -344
30 -8 -344
30 -8 -343
30 -8 -342
30 -8 -342
30 -8 -341
44 -10 -465
82 -16 -806
-1 -13 -393
-231 34 1174
-170 34 989
-170 34 990
-183 34 1032
-183 34 1033
-180 37 1058
-180 37 1059
-269 36 1339
-163 33 962
-185 38 1100
-182 38 1089
-191 39 1134
-193 39 1142
-209 39 1198
-193 39 1145
-199 41 1189
-193 39 1148
-200 41 1192
-205 42 1231
-205 42 1233
-207 42 1242
-186 38 1116
-186 38 1117
-231 48 1406
-215 48 1352
-231 48 1410
-225 46 1363
-225 46 1365
-244 47 1439
-242 51 1488
-227 48 1406
-212 45 1314
-271 56 1672
-285 60 1765
-271 56 1678
-271 56 1681
-147 29 891
-302 63 1881
-265 55 1648
-303 63 1889
-144 28 874
-342 72 2144
-176 35 1084
-367 78 2317
-368 78 2323
-368 78 2329
-345 73 2180
-251 47 1510
-595 91 3289
-312 71 2056
-133 25 822
-156 31 972
-589 126 3808
-590 127 3824
-592 127 3840
-594 128 3856
-596 128 3872
-478 102 3099
-354 74 2283
-789 171 5167
-793 171 5196
-944 205 6202
-133 25 832
-133 25 832
-1546 338 10226
-1562 341 10340
-1202 261 7954
5165 -792 -29338
11984 -1661 -65610
11186 -1549 -61296
14707 -2059 -81010
431 0 -1554
-237 113 2531
-238 113 2538
-684 159 4727
-155 27 951
-105580 23759 720857
-14352 3299 99164
3641 -804 -24693
2011 -411 -13171
3111 -679 -21039
-6938 1646 48959
2792 -667 -19801
2731 -653 -19391
1936 -464 -13781
1905 -456 -13581
1287 -282 -8790
1009 -222 -6911
1000 -220 -6861
992 -218 -6811
817 -180 -5627
811 -179 -5593
805 -178 -5560
1435 -314 -9874
1419 -310 -9771
-201 39 1324
629 -139 -4371
578 -127 -4006
583 -129 -4069
580 -129 -4051
514 -114 -3602
611 -135 -4272
600 -133 -4215
502 -111 -3534
1200 -259 -8336
379 -84 -2686
378 -84 -2679
-1171 245 8078
375 -83 -2664
337 -75 -2404
336 -75 -2398
312 -69 -2234
333 -74 -2386
310 -69 -2224
309 -69 -2219
365 -80 -2613
-1256 262 8752
362 -80 -2598
360 -80 -2591
267 -60 -1942
267 -60 -1938
251 -56 -1830
250 -56 -1826
249 -56 -1823
249 -56 -1819
235 -53 -1724
247 -55 -1812
263 -59 -1929
262 -59 -1925
262 -58 -1921
261 -58 -1917
343 -75 -2503
208 -47 -1548
208 -47 -1545
181 -41 -1358
197 -45 -1474
180 -41 -1355
335 -74 -2465
183 -26 -1137
188 -40 -1384
181 -41 -1382
189 -43 -1438
173 -39 -1325
173 -39 -1323
172 -39 -1321
172 -39 -1320
171 -39 -1318
163 -37 -1260
147 -34 -1140
146 -34 -1138
157 -36 -1218
156 -36 -1216
156 -36 -1214
156 -36 -1213
155 -35 -1211
144 -33 -1130
144 -33 -1129
143 -33 -1128
143 -33 -1126
143 -33 -1125
158 -36 -1239
-5073 1052 37790
132 -31 -1052
132 -31 -1050
131 -30 -1049
127 -30 -1017
127 -29 -1016
126 -29 -1015
122 -28 -985
122 -28 -984
122 -28 -983
121 -28 -982
121 -28 -981
131 -30 -1061
131 -30 -1059
110 -26 -902
113 -27 -925
107 -25 -877
119 -28 -975
109 -26 -899
109 -26 -898
-204 38 1498
40 -11 -368
39 -11 -367
40 -11 -364
55 -15 -494
39 -11 -368
39 -11 -367
42 -16 -466
92 -30 -917
98 -24 -829
93 -22 -791
115 -27 -966
115 -27 -965
81 -68 -1601
113 -29 -1000
114 -27 -962
112 -26 -945
82 -20 -712
82 -20 -712
82 -20 -711
82 -20 -711
82 -19 -710
86 -20 -742
81 -19 -709
110 -25 -938
117 -27 -990
77 -19 -680
116 -26 -988
75 -18 -666
75 -18 -666
73 -18 -653
73 -18 -653
73 -18 -652
73 -18 -652
71 -17 -640
71 -17 -639
73 -18 -651
76 -18 -673
69 -17 -625
69 -17 -622
69 -17 -622
68 -16 -613
69 -17 -621
66 -16 -601
66 -16 -601
66 -16 -601
66 -16 -600
66 -16 -600
64 -16 -590
65 -16 -599
71 -17 -643
71 -17 -642
59 -15 -552
59 -15 -565
61 -16 -580
62 -15 -573
58 -14 -536
57 -14 -532
57 -14 -532
57 -14 -532
56 -14 -523
55 -14 -523
55 -14 -523
55 -14 -523
54 -13 -515
54 -13 -515
54 -13 -514
56 -14 -533
56 -14 -533
56 -14 -533
52 -13 -499
52 -13 -499
52 -13 -498
50 -10 -429
43 -11 -424
45 -11 -439
44 -11 -434
43 -12 -440
41 -12 -447
37 -14 -474
37 -14 -474
37 -14 -474
37 -14 -474
35 -14 -449
35 -14 -448
34 -14 -448
34 -14 -448
34 -14 -448
34 -14 -448
34 -13 -443
34 -13 -443
41 -15 -520
85 -28 -990
33 -13 -442
33 -13 -442
32 -13 -431
32 -13 -431
33 -13 -446
26 -11 -369
170 -53 -1913
196 -61 -2199
194 -57 -2127
31 -12 -417
40 -9 -389
38 -9 -390
38 -10 -394
48 -11 -478
33 -9 -349
33 -9 -349
33 -8 -348
25 -11 -368
39 -8 -368
36 -9 -378
35 -9 -372
35 -9 -372
36 -9 -378
36 -9 -378
35 -9 -378
35 -9 -378
35 -9 -377
35 -9 -377
35 -9 -377
32 -8 -347
32 -8 -347
31 -8 -347
33 -9 -361
32 -8 -356
32 -8 -356
33 -9 -361
33 -9 -360
33 -9 -360
33 -8 -360
33 -8 -360
33 -8 -360
32 -8 -360
31 -8 -345
31 -8 -345
31 -8 -345
30 -8 -341
30 -8 -341
30 -8 -341
30 -8 -341
30 -8 -345
30 -8 -345
30 -8 -344
30 -8 -344
30 -8 -344
30 -8 -344
30 -8 -344
30 -8 -344
30 -8 -344
31 -8 -357
44 -10 -468
82 -17 -815
0 -13 -394
-230 34 1171
-174 35 1018
-179 37 1052
-179 37 1053
-270 37 1338
-179 37 1056
-163 33 958
-200 38 1144
-266 40 1376
-181 38 1085
-192 41 1158
-192 39 1138
-163 30 921
-208 40 1195
-192 39 1142
-199 41 1186
-206 43 1232
-206 43 1234
-204 43 1228
-181 38 1099
-181 38 1100
235 -58 -1541
-140 29 840
-224 48 1381
-225 48 1383
-214 48 1348
-223 46 1357
-224 46 1359
-224 46 1361
-243 51 1488
-362 50 1862
-222 46 1364
-299 63 1863
-300 63 1866
-300 63 1870
-300 63 1874
-246 51 1528
-388 83 2440
-382 83 2418
-223 47 1394
-133 26 808
-133 26 809
-358 77 2275
-359 77 2281
-342 73 2160
-342 73 2166
-343 73 2171
-227 47 1425
-339 73 2168
-319 71 2085
-475 102 3065
-583 126 3779
-477 103 3086
-210 43 1334
-588 127 3826
-229 47 1457
-769 168 5029
-776 169 5085
-920 201 6044
-925 202 6084
-133 26 830
-1497 330 9909
-1512 333 10016
-1526 336 10125
-805 175 5318
14995 -2101 -82151
13768 -1928 -75500
12726 -1781 -69846
17520 -2479 -96663
-1575 375 10936
-779 183 5387
-674 158 4658
-2982 658 20102
4063 -906 -27550
3942 -878 -26762
40979 -9202 -279501
-2917 650 19857
-845 186 5725
2153 -497 -14955
1635 -378 -11381
1613 -373 -11245
2047 -473 -14272
2014 -465 -14058
1170 -271 -8197
1158 -269 -8126
923 -215 -6495
916 -213 -6451
1015 -247 -7322
2399 -578 -17237
2353 -567 -16926
-159 34 1084
600 -134 -4176
588 -130 -4074
593 -133 -4139
673 -164 -4912
-1014 579 12683
622 -139 -4350
-201 40 1336
605 -135 -4252
601 -134 -4233
-1078 230 7466
384 -87 -2738
344 -78 -2464
343 -78 -2458
341 -77 -2452
315 -71 -2255
316 -72 -2275
314 -71 -2270
313 -71 -2264
369 -82 -2642
367 -82 -2634
366 -82 -2627
271 -61 -1962
270 -61 -1958
269 -61 -1954
253 -57 -1844
252 -57 -1840
251 -57 -1837
251 -57 -1833
250 -57 -1830
249 -56 -1826
265 -60 -1945
265 -60 -1941
264 -59 -1937
263 -59 -1933
346 -77 -2530
210 -48 -1558
209 -48 -1555
182 -42 -1366
182 -42 -1364
-1441 303 10272
185 -27 -1144
190 -40 -1394
190 -40 -1392
189 -41 -1400
189 -42 -1417
174 -41 -1341
174 -40 -1339
173 -40 -1337
173 -40 -1336
172 -40 -1334
148 -35 -1153
147 -35 -1151
147 -34 -1144
158 -36 -1224
157 -36 -1222
157 -36 -1221
151 -35 -1184
156 -36 -1225
156 -36 -1223
144 -34 -1141
144 -34 -1139
144 -34 -1138
143 -34 -1137
294 -66 -2269
-132 24 930
133 -31 -1062
132 -31 -1060
132 -31 -1059
127 -30 -1027
131 -31 -1052
131 -31 -1050
123 -29 -989
123 -29 -988
122 -29 -987
122 -29 -986
132 -31 -1066
116 -27 -944
116 -27 -943
114 -27 -930
114 -27 -929
113 -27 -928
107 -25 -880
130 -30 -1058
109 -26 -901
89 -22 -746
40 -11 -368
40 -11 -368
44 -12 -400
88 -22 -746
39 -11 -368
45 -9 -348
43 -16 -467
80 -27 -813
87 -21 -743
96 -23 -812
98 -24 -830
96 -26 -857
93 -23 -791
92 -23 -791
115 -27 -966
-213 40 1615
82 -20 -716
105 -2 -488
82 -20 -715
82 -20 -715
95 -23 -820
81 -20 -714
110 -26 -946
117 -28 -1004
117 -27 -994
78 -19 -679
76 -18 -666
75 -18 -668
74 -18 -655
74 -18 -654
73 -18 -654
73 -18 -654
72 -18 -641
71 -18 -641
73 -18 -652
76 -18 -677
76 -18 -677
69 -17 -626
68 -17 -616
68 -17 -616
69 -17 -625
66 -16 -605
66 -16 -604
66 -16 -602
66 -16 -602
66 -16 -602
66 -16 -601
66 -16 -601
71 -17 -644
60 -15 -553
59 -15 -553
62 -16 -578
62 -16 -578
57 -15 -544
56 -15 -539
56 -15 -539
56 -15 -539
56 -15 -538
56 -15 -542
55 -14 -530
54 -14 -529
53 -14 -521
54 -14 -516
54 -14 -516
54 -14 -515
56 -14 -535
56 -14 -534
85 -20 -775
52 -13 -500
51 -13 -493
99 -22 -893
44 -11 -431
43 -11 -426
46 -11 -445
45 -11 -440
44 -11 -435
44 -11 -435
43 -12 -438
44 -12 -451
42 -13 -459
42 -13 -459
37 -15 -475
35 -14 -449
35 -14 -449
35 -14 -449
34 -14 -449
34 -14 -449
34 -14 -449
34 -14 -444
36 -14 -467
41 -16 -521
86 -29 -994
86 -28 -978
34 -12 -425
34 -12 -425
39 -10 -408
40 -11 -425
38 -12 -432
33 -13 -446
699 -145 -6272
1096 -202 -9352
37 -10 -392
36 -10 -401
34 -11 -407
96 -32 -1140
36 -8 -340
34 -8 -345
38 -7 -332
39 -8 -368
28 -12 -402
28 -12 -395
28 -12 -395
28 -12 -402
28 -12 -401
28 -12 -401
28 -12 -401
28 -12 -401
28 -12 -401
32 -8 -348
32 -8 -347
32 -8 -347
32 -8 -347
33 -9 -361
33 -9 -357
32 -9 -356
33 -9 -361
33 -9 -361
33 -9 -361
33 -9 -361
33 -9 -361
33 -9 -360
32 -9 -360
31 -8 -346
31 -8 -346
31 -8 -346
30 -8 -342
30 -8 -342
30 -8 -342
30 -8 -345
30 -8 -345
30 -8 -345
30 -8 -345
30 -8 -345
30 -8 -345
30 -8 -345
30 -8 -344
30 -8 -344
30 -8 -344
31 -8 -357
44 -10 -469
0 -13 -394
-248 34 1225
-160 33 946
-175 37 1038
-193 37 1096
-193 37 1097
-185 38 1094
-182 38 1084
-204 43 1213
-182 38 1086
-191 41 1152
-191 41 1154
-193 41 1162
-187 40 1123
-208 40 1191
-191 40 1138
-205 43 1226
-201 43 1213
-182 38 1098
-180 38 1094
-398 90 2476
236 -59 -1552
55 -16 -401
114 -30 -780
-130 26 778
-130 26 778
-223 48 1377
-209 45 1288
-236 51 1452
-242 51 1476
-223 47 1356
-297 63 1848
-293 63 1835
-293 63 1839
-259 55 1615
-216 45 1342
-378 83 2387
-507 115 3263
-331 72 2094
-222 47 1388
-132 26 803
-132 26 804
-326 71 2069
-327 71 2074
-382 83 2438
-390 84 2474
-340 73 2156
-340 73 2161
-391 85 2494
-336 73 2148
-398 86 2564
-465 101 3010
-579 127 3765
-227 47 1448
-754 166 4925
-757 167 4951
-760 167 4978
-897 198 5894
-902 199 5932
-131 26 823
-143 28 898
-1391 312 9270
-1478 329 9814
-791 174 5231
-794 175 5260
-1056 213 6730
1359 -197 -7551
-2934 677 19982
-248 121 2664
-663 157 4590
-151 30 967
4443 -999 -30151
-2914 649 19710
-849 186 5713
-854 187 5748
-858 188 5783
1864 -421 -12754
1467 -332 -10060
1811 -408 -12416
1785 -403 -12254
1095 -248 -7549
1085 -246 -7489
879 -200 -6081
872 -198 -6042
865 -197 -6004
1731 -394 -12034
-878 194 6023
-149 30 980
621 -142 -4340
617 -141 -4321
613 -140 -4301
459 -100 -3149
525 -130 -3848
590 -146 -4325
-951 208 6553
-762 180 5479
704 -173 -5182
-769 181 5543
-772 182 5576
348 -80 -2490
346 -79 -2484
345 -79 -2477
320 -73 -2302
319 -73 -2297
317 -73 -2291
316 -73 -2286
376 -86 -2706
374 -85 -2699
373 -85 -2691
274 -63 -1997
273 -63 -1993
272 -63 -1989
256 -59 -1875
255 -59 -1871
254 -59 -1868
253 -59 -1864
253 -58 -1861
238 -55 -1761
268 -61 -1960
267 -61 -1956
266 -61 -1952
265 -60 -1948
341 -77 -2494
211 -49 -1568
184 -43 -1376
184 -43 -1374
345 -77 -2530
186 -27 -1151
185 -27 -1149
193 -46 -1484
193 -46 -1481
192 -45 -1479
192 -45 -1477
175 -42 -1358
175 -42 -1356
174 -41 -1354
174 -41 -1352
173 -41 -1350
148 -36 -1172
148 -36 -1170
147 -36 -1169
158 -38 -1253
158 -38 -1251
158 -38 -1249
151 -37 -1204
157 -39 -1261
156 -39 -1260
145 -36 -1172
144 -38 -1198
144 -38 -1197
144 -34 -1142
297 -67 -2290
-131 24 926
133 -32 -1066
133 -32 -1065
133 -32 -1064
128 -31 -1031
132 -32 -1062
132 -31 -1061
123 -30 -998
123 -30 -997
123 -30 -996
122 -29 -995
133 -32 -1077
116 -28 -952
116 -28 -951
114 -28 -937
114 -28 -936
114 -28 -936
113 -27 -935
120 -29 -987
110 -27 -908
-199 38 1469
-787 162 5965
64 -17 -558
56 -15 -495
41 -11 -364
40 -11 -365
39 -11 -369
68 -1 -307
34 -13 -384
35 -13 -379
33 -13 -384
39 -32 -761
41 -12 -384
40 -11 -374
50 -14 -461
115 -28 -970
115 -28 -969
115 -28 -968
114 -27 -967
83 -20 -719
-187 33 1381
82 -20 -717
86 -21 -750
95 -23 -823
82 -20 -716
111 -26 -949
110 -26 -948
117 -28 -1003
77 -19 -686
76 -19 -672
75 -19 -672
74 -18 -659
73 -18 -658
73 -18 -658
73 -18 -657
72 -18 -645
71 -18 -645
72 -18 -658
76 -19 -679
70 -17 -628
69 -17 -628
69 -17 -627
68 -17 -618
69 -17 -626
66 -17 -606
66 -17 -606
66 -17 -606
66 -17 -605
66 -17 -605
66 -16 -604
71 -18 -649
61 -15 -564
60 -15 -554
60 -15 -554
62 -16 -578
62 -16 -578
58 -15 -541
57 -15 -536
57 -14 -536
57 -14 -536
57 -14 -535
56 -14 -527
55 -14 -528
55 -14 -526
55 -14 -526
54 -14 -518
54 -14 -519
56 -14 -539
56 -14 -538
55 -15 -541
105 -25 -966
105 -25 -965
43 -12 -436
46 -12 -446
46 -12 -446
45 -12 -441
44 -11 -436
44 -11 -436
44 -11 -435
45 -12 -446
45 -12 -446
45 -12 -446
45 -12 -446
42 -11 -425
42 -11 -425
42 -11 -425
41 -12 -428
41 -12 -428
41 -11 -428
40 -11 -423
40 -13 -452
41 -16 -523
86 -29 -994
43 -15 -513
35 -13 -432
39 -11 -412
39 -11 -410
40 -10 -407
40 -10 -406
39 -11 -427
32 -10 -373
47 -12 -480
38 -10 -392
38 -10 -396
92 -20 -860
106 -22 -977
26 -11 -369
30 -10 -355
36 -10 -381
34 -10 -385
28 -12 -403
28 -12 -396
28 -12 -396
28 -12 -402
28 -12 -402
28 -12 -402
28 -12 -402
28 -12 -402
28 -12 -401
25 -11 -367
25 -11 -367
24 -11 -367
24 -11 -367
26 -11 -383
25 -11 -378
25 -11 -377
26 -11 -383
25 -11 -382
25 -11 -382
25 -11 -382
25 -11 -382
33 -9 -361
31 -8 -347
31 -8 -346
31 -8 -346
31 -8 -346
30 -8 -342
30 -8 -342
30 -8 -342
30 -8 -346
30 -8 -346
30 -8 -345
30 -8 -345
30 -8 -345
30 -8 -345
30 -8 -345
30 -8 -345
30 -8 -345
30 -8 -345
31 -8 -358
44 -11 -470
0 -13 -395
59 -18 -415
-247 34 1220
-178 37 1044
-178 37 1045
-203 43 1201
-203 43 1203
-221 43 1265
-222 43 1267
-202 40 1163
-184 40 1107
-190 41 1148
-191 41 1149
-193 41 1157
-186 40 1119
-204 43 1218
-200 43 1205
-200 43 1207
-181 39 1093
-185 39 1106
-401 90 2480
238 -60 -1562
54 -17 -405
54 -17 -405
117 -31 -797
-213 47 1310
-129 27 776
-170 25 887
-211 45 1289
-235 51 1443
-235 51 1446
-235 51 1448
-216 47 1332
-107 45 970
-259 57 1620
-287 63 1801
-287 63 1805
-253 55 1589
-260 55 1617
-326 71 2040
-374 82 2363
-319 71 2030
-319 71 2034
-340 76 2174
-225 49 1423
-225 49 1425
-129 26 795
-159 33 993
-343 80 2253
-315 70 2024
-315 70 2029
-337 73 2142
-331 71 2101
-450 100 2929
-557 124 3640
-718 161 4713
-741 165 4850
-872 194 5716
-876 195 5752
-852 192 5628
-856 193 5662
-735 165 4862
-1350 306 9009
-751 168 4993
-777 172 5146
-781 173 5175
-1027 209 6545
-788 175 5234
-3771 851 25275
-1878 436 12787
-834 184 5612
2001 -456 -13672
1970 -449 -13475
1532 -350 -10503
1911 -435 -13099
1142 -261 -7861
1131 -259 -7796
1121 -256 -7732
902 -207 -6240
895 -205 -6199
888 -204 -6159
1727 -393 -11934
1703 -387 -11784
-203 42 1347
632 -146 -4421
629 -145 -4400
625 -144 -4380
456 -98 -3094
657 -151 -4617
-931 205 6421
-937 207 6465
634 -146 -4485
-959 211 6648
-929 207 6482
-1215 269 8461
354 -84 -2566
327 -77 -2379
326 -77 -2373
324 -77 -2367
348 -82 -2538
386 -91 -2813
385 -90 -2805
280 -67 -2059
281 -69 -2097
280 -68 -2092
279 -68 -2087
262 -64 -1962
254 -57 -1819
253 -56 -1815
256 -60 -1879
241 -56 -1777
240 -56 -1774
271 -63 -1996
270 -63 -1992
269 -63 -1988
358 -82 -2625
347 -80 -2551
213 -50 -1590
185 -44 -1393
185 -44 -1391
194 -42 -1415
195 -47 -1495
194 -46 -1493
194 -46 -1491
193 -46 -1488
193 -46 -1486
176 -42 -1365
176 -42 -1363
175 -42 -1361
175 -42 -1360
199 -47 -1541
149 -36 -1171
149 -36 -1169
148 -36 -1168
159 -38 -1251
159 -38 -1250
158 -38 -1248
158 -38 -1247
158 -38 -1245
146 -36 -1159
146 -35 -1158
145 -35 -1157
145 -35 -1155
145 -35 -1154
301 -70 -2339
-129 24 919
126 -31 -1015
134 -33 -1077
133 -33 -1076
133 -33 -1074
128 -32 -1041
132 -33 -1078
131 -34 -1099
123 -31 -1012
123 -31 -1011
122 -31 -1020
122 -31 -1019
132 -35 -1129
115 -31 -993
110 -30 -951
113 -30 -977
114 -28 -940
114 -28 -939
111 -27 -914
121 -29 -991
110 -27 -908
110 -27 -911
-147 28 1068
-156 30 1145
64 -17 -560
39 -12 -370
41 -11 -365
40 -11 -365
40 -11 -365
68 -1 -308
37 -12 -374
34 -14 -385
33 -14 -385
61 -18 -570
63 -17 -557
39 -11 -368
93 -23 -796
93 -23 -795
115 -28 -973
109 -36 -1095
115 -28 -971
107 -17 -753
90 -22 -783
90 -22 -782
111 -27 -953
111 -27 -952
118 -28 -1007
78 -20 -688
77 -19 -687
77 -19 -687
74 -19 -661
74 -19 -660
74 -19 -660
73 -19 -659
72 -18 -647
72 -18 -646
73 -18 -658
76 -19 -683
69 -18 -632
69 -18 -631
69 -18 -631
69 -18 -630
69 -18 -630
66 -17 -610
66 -17 -609
66 -17 -609
71 -18 -654
66 -17 -608
66 -17 -608
61 -16 -567
60 -15 -557
60 -15 -556
60 -15 -555
63 -16 -579
62 -16 -579
58 -15 -542
57 -15 -537
57 -15 -537
57 -15 -537
57 -15 -541
56 -14 -528
56 -14 -528
56 -14 -528
54 -14 -520
54 -14 -519
54 -14 -519
57 -15 -539
56 -14 -538
56 -14 -538
100 -23 -906
884 -182 -7434
46 -12 -447
46 -12 -448
46 -12 -448
46 -12 -448
45 -12 -437
44 -12 -436
44 -12 -436
46 -12 -447
45 -12 -447
45 -12 -447
45 -12 -446
43 -11 -424
42 -11 -424
42 -11 -424
42 -11 -424
42 -11 -423
40 -11 -409
44 -11 -440
50 -13 -488
96 -21 -872
41 -11 -417
40 -11 -416
42 -11 -421
40 -10 -407
40 -10 -407
41 -11 -421
39 -12 -428
26 -12 -371
35 -11 -397
38 -10 -398
93 -20 -863
48 -12 -483
38 -10 -397
93 -20 -860
167 -34 -1498
31 -10 -355
29 -10 -360
36 -10 -381
36 -10 -382
35 -10 -383
32 -11 -392
28 -12 -397
28 -12 -396
28 -12 -403
28 -12 -403
28 -12 -403
28 -12 -402
28 -12 -402
28 -12 -402
25 -11 -368
25 -11 -368
25 -11 -368
24 -11 -368
25 -11 -378
25 -11 -378
25 -11 -378
26 -11 -383
26 -11 -383
25 -11 -383
25 -11 -383
25 -11 -383
25 -11 -382
24 -11 -366
24 -11 -366
24 -11 -366
24 -11 -366
23 -11 -362
23 -11 -362
23 -11 -361
23 -11 -365
23 -11 -365
23 -11 -365
30 -8 -346
30 -8 -346
30 -8 -346
30 -8 -346
30 -8 -345
30 -8 -345
30 -8 -345
31 -9 -358
44 -11 -471
0 -14 -396
59 -18 -415
-266 37 1316
-177 37 1042
-202 43 1197
-180 35 1021
-205 40 1170
-189 40 1119
-189 40 1120
-201 40 1161
-190 41 1144
-190 41 1145
-192 41 1153
-199 43 1197
-199 43 1199
-203 43 1215
-184 39 1100
-181 39 1089
-411 91 2515
-404 91 2491
239 -61 -1569
241 -64 -1616
54 -19 -440
63 -19 -461
-140 29 840
-210 45 1286
-207 45 1280
-215 47 1325
-253 56 1585
-116 49 1062
-257 57 1603
-257 57 1606
-284 63 1784
-285 63 1788
-285 63 1791
-252 55 1579
-252 55 1581
-314 70 1983
-320 71 2028
-321 72 2033
-315 70 1996
268 -67 -1797
54 -17 -413
93 -25 -665
-318 72 2035
-138 29 858
-312 70 2007
-318 71 2032
-328 71 2078
-426 96 2751
-325 72 2088
-163 35 1034
-444 99 2885
-445 99 2894
-335 74 2170
-704 159 4621
-707 160 4645
-824 187 5433
-828 188 5465
-782 181 5216
-974 237 6669
-681 157 4552
-724 164 4789
-1450 304 9250
-1914 439 12822
-2082 473 13886
-2111 479 14097
-771 172 5121
-2172 493 14537
443 -2 -1608
-768 173 5162
-815 182 5483
-818 183 5515
1624 -374 -11118
1603 -369 -10988
